ply
format ascii 1.0
element vertex 50
property float x
property float y
property float z
end_header
36.3422012329 -12.673500061 -45.2005996704 
-20.1812000275 11.211400032 -45.0697021484 
-31.7296504974 0.603100001812 -41.7211494446 
22.2393989563 -34.7299499512 -23.3313999176 
-15.1243495941 25.2556991577 -20.5685501099 
-19.6968002319 19.6467990875 -18.9988002777 
10.2349004745 -8.30029964447 -5.59030008316 
-15.7432498932 24.8893013 4.32800006866 
18.0480499268 1.39544999599 8.24759960175 
-17.8699989319 -15.9490661621 13.6027336121 
-3.88140010834 -11.4149999619 36.8170013428 
-15.9510002136 1.08916664124 37.27526474 
16.8995628357 -7.34742069244 -45.3915672302 
-26.7966556549 17.2098178864 -31.2249507904 
-37.2729606628 -7.12676239014 -26.3253498077 
16.2477207184 -7.48539733887 -26.7812709808 
12.6583003998 7.35576248169 -26.3708000183 
-3.48394989967 -32.8156814575 -21.0142593384 
-21.9508056641 -26.6022872925 -21.4795608521 
-12.0813379288 -27.8991909027 -21.4781627655 
8.27460002899 12.0762891769 -21.5817089081 
17.5264606476 -37.6581497192 -16.2056674957 
-8.23233795166 32.1481628418 -17.4199371338 
11.7235546112 -37.5713424683 -12.3222084045 
-8.44309997559 -28.2166004181 -13.6195001602 
4.28629970551 16.7131500244 -13.0430498123 
-16.6397171021 21.0298480988 -11.9056434631 
-27.60338974 13.5527000427 -7.04271697998 
21.388999939 -31.1985778809 -2.29172515869 
-23.9041996002 -18.7583999634 -0.323000013828 
-28.2423496246 -13.0219497681 -0.75619995594 
10.5630502701 17.6156997681 -2.13151669502 
-2.25964999199 33.0849990845 -0.185750007629 
-2.41339588165 21.6086006165 7.44061660767 
-12.3785495758 -21.3516120911 11.9786901474 
17.2099666595 -7.63743305206 11.7327957153 
-25.3540630341 2.58512091637 12.0550336838 
21.2982902527 -2.40248012543 16.616399765 
-16.2458209991 15.913854599 16.2744503021 
7.44296646118 21.6158332825 16.6959571838 
-6.94911718369 -14.9184684753 25.7472839355 
2.48832511902 18.3619613647 26.417263031 
-1.79020011425 2.60234999657 45.7328834534 
9.11065006256 -14.7179508209 -10.6332502365 
-36.5181427002 -4.78828334808 -14.4242153168 
9.37601089478 4.64309120178 1.38051104546 
-9.65679931641 -9.6056842804 -44.8624649048 
9.60361099243 9.8247833252 -44.4890136719 
-6.7428021431 -5.94903373718 41.0143165588 
7.29815101624 8.14048957825 40.7605018616 
