ply
format ascii 1.0
element vertex 50
property float x
property float y
property float z
end_header
7.93790006638 -30.7472324371 -85.922203064 
11.0872497559 -10.6163005829 -86.1285018921 
-1.65530002117 33.6427993774 -84.5597457886 
-16.6340999603 -24.1913490295 -72.5953979492 
18.0690994263 7.62680006027 -72.698135376 
15.7173500061 4.76574993134 -39.8745994568 
-16.5492649078 30.2829990387 -31.3836669922 
10.8705997467 -28.8293991089 -7.99930000305 
-10.7354669571 22.8164348602 10.6751327515 
8.25436687469 -24.2851009369 26.2362346649 
8.68839931488 -11.8164663315 37.3465690613 
-1.1820499897 -10.4435014725 53.645401001 
-10.3577003479 4.96029996872 52.7148971558 
6.59953308105 1.36170005798 68.2798995972 
-1.49284994602 9.67115020752 69.4169006348 
-16.3932590485 -9.73323440552 -60.9005508423 
15.9567956924 -9.73038768768 -60.7006034851 
-15.7796478271 3.45447301865 -54.4467735291 
-3.3092186451 38.8626480103 -54.2219352722 
-2.90707492828 -38.6414642334 -47.7551498413 
4.76316642761 38.279800415 -46.4682807922 
13.1283502579 -32.928024292 -42.4389762878 
15.1723613739 -9.71445846558 -35.5073432922 
17.4113750458 22.3329658508 -35.4151496887 
-3.37485003471 37.5134468079 -35.2949562073 
14.6243534088 -22.3831367493 -28.9019603729 
-15.0136909485 -9.87314987183 -28.5515079498 
3.34824466705 -34.8683128357 -22.7273712158 
16.7013168335 9.91393566132 -16.1232051849 
-9.41159629822 32.6139678955 -16.3644294739 
-16.1484050751 9.11594104767 -9.58058071136 
13.7425985336 20.0645484924 8.33465003967 
-2.92644023895 -28.2344264984 16.7265415192 
17.2785205841 -2.91268539429 16.2531261444 
-17.6253604889 -3.63452076912 22.076467514 
-3.25642514229 -17.7878704071 30.0988998413 
14.5310764313 8.61143016815 28.5649986267 
-3.02420425415 17.9877986908 28.7675666809 
-12.029296875 3.13932085037 41.9938964844 
11.6086835861 2.86790418625 41.4517326355 
-3.05529165268 13.9956998825 41.708694458 
-15.2303857803 -6.43640422821 -44.8988113403 
-7.11781072617 -33.1028442383 -18.7855186462 
15.0959777832 29.8654079437 -21.3059539795 
-15.969950676 -6.72394180298 -6.35051679611 
15.8680019379 -6.50495100021 -6.34217357635 
6.39733791351 28.9973640442 -6.38262271881 
-11.4485025406 -12.654583931 -83.787979126 
-11.5638113022 12.9090766907 -83.8921127319 
3.35066485405 -3.22879457474 82.283416748 
