ply
format ascii 1.0
element vertex 50
property float x
property float y
property float z
end_header
4.11460018158 16.7681999207 -39.5135002136 
5.58510017395 -17.6317996979 -32.1916007996 
-39.5648994446 -17.6317996979 -45.4000015259 
20.635099411 -0.43180000782 -42.3158988953 
-36.7457962036 -4.91384983063 -33.2309951782 
-34.8047027588 17.8432006836 -33.4049987793 
33.5350990295 -30.5317993164 -30.6105995178 
-30.3241500854 33.9312171936 -30.1880340576 
39.9850997925 37.1931991577 -30.5941505432 
-39.4678993225 17.5973491669 -21.0707492828 
-37.3117027283 -4.49830007553 -5.39580011368 
-29.998960495 -20.8865127563 1.55727505684 
-18.0648994446 21.0681991577 3.5571000576 
-33.1148986816 -11.1817998886 9.65890026093 
-5.16489982605 30.7431983948 10.4531002045 
39.9850997925 46.8681983948 25.5016994476 
4.51010036469 27.5181999207 27.8195991516 
9.88510036469 4.94320011139 31.852350235 
33.5350990295 27.5181999207 30.2220001221 
17.4100990295 -17.6317996979 34.2267990112 
17.4068069458 30.7489509583 33.8688240051 
2.8796877861 -41.7754516602 -39.4183311462 
-28.4007530212 -35.3693008423 -41.6846389771 
22.7850990295 29.6681995392 -42.5824508667 
28.6385345459 -9.47258853912 -31.2777061462 
22.337184906 22.5605506897 -30.8296966553 
-26.8556213379 -9.79270076752 -22.2313632965 
-24.9236946106 3.103120327 -24.0209770203 
21.7888641357 42.458026886 -22.742521286 
-28.3242225647 -44.1254730225 -15.6841430664 
15.8853988647 -36.3665390015 -15.7674770355 
-48.3211250305 -15.8401327133 -2.7373456955 
9.34759998322 -39.5529556274 3.60540938377 
13.5109500885 44.7182006836 4.22000026703 
-13.9625692368 3.33069992065 9.61849403381 
-31.0258369446 16.2307014465 11.7754745483 
-20.2148990631 -39.1318016052 12.9657001495 
26.7364006042 44.7182006836 18.4968490601 
-20.2148990631 46.8681983948 13.1293001175 
29.7331924438 -40.6117248535 21.0673274994 
5.58510017395 -1.50679993629 19.3751487732 
-2.32486462593 47.251739502 21.1977729797 
10.3707733154 -40.8450965881 27.5659008026 
30.8611106873 -35.1061019897 39.4248924255 
31.385099411 41.4932022095 38.9108505249 
-40.3915061951 -44.1046180725 -36.3085479736 
33.3198471069 18.4206199646 42.7603378296 
38.5015106201 13.109287262 -36.2119674683 
12.2557563782 -13.0497837067 21.3780765533 
38.0004959106 -12.5748710632 37.1061401367 
