ply
format ascii 1.0
element vertex 50
property float x
property float y
property float z
end_header
58.6382331848 -39.3957023621 -69.0812683105 
-27.1237487793 53.5325469971 -68.1062469482 
-67.1770629883 -48.1167564392 -66.6900558472 
-10.1039705276 -48.1888961792 -67.3020553589 
118.088500977 -3.1571252346 -69.8575592041 
-73.6610717773 16.0538749695 -67.0571746826 
92.7187576294 15.926112175 -69.6212081909 
-102.950248718 10.3124752045 -52.0060997009 
-98.1747436523 46.926399231 -53.8261909485 
-60.455581665 -58.4177932739 -48.1698951721 
82.3691329956 -31.1226329803 -46.7523994446 
-41.7246246338 57.9745635986 -48.1604118347 
15.9771499634 -52.0091018677 -42.9052734375 
-118.509048462 -35.3165969849 -43.6536026001 
82.0374221802 25.3020744324 -41.2465515137 
-118.40032959 41.6538772583 -44.0448913574 
115.760002136 1.05283331871 -37.1876678467 
-86.3912734985 -52.715839386 -28.8847160339 
-79.73777771 53.9791984558 -29.1239814758 
-112.518630981 9.45733737946 -15.618062973 
-115.396003723 39.4524002075 -19.0013008118 
-3.11172485352 20.4950504303 6.95370006561 
-59.6814079285 2.97819185257 22.5067005157 
-105.771446228 3.15671253204 28.528886795 
-10.1299877167 -3.55011987686 34.8873176575 
-41.576335907 3.22467899323 35.211769104 
-67.6724243164 -21.3326263428 41.698589325 
78.419708252 -2.86876320839 41.2167854309 
-41.7613639832 -3.20094585419 62.488117218 
-83.2690734863 -32.677734375 -58.0561180115 
-44.5583610535 -53.0049285889 -32.4514045715 
45.0071411133 -41.7082099915 -31.9157981873 
-57.7868270874 53.5912780762 -32.1233978271 
-6.92031335831 -45.0262260437 -19.1386432648 
100.954063416 -7.66543769836 -14.4241027832 
-6.33134841919 43.7305183411 -20.1164951324 
32.3404121399 39.3213615417 -24.2776870728 
-95.2901000977 -39.7397232056 4.1388001442 
-12.9566001892 -25.6098995209 3.02659988403 
-112.07875824 6.56757831573 6.54451847076 
-30.9022388458 6.65534925461 4.64241313934 
-95.2434310913 40.32396698 5.89588308334 
56.9941825867 2.34969592094 52.7242431641 
-38.3568878174 -12.8431072235 -68.1364593506 
-12.7966918945 -12.7278404236 -68.6571502686 
-38.3951721191 12.775847435 -68.4585189819 
-13.3217372894 -10.2962799072 58.5894851685 
-109.114730835 3.35261058807 63.3055152893 
11.9530563354 52.7833023071 -61.5880889893 
24.5440235138 6.2321100235 53.9107666016 
