ply
format ascii 1.0
element vertex 50
property float x
property float y
property float z
end_header
11.836350441 46.556427002 -101.629508972 
-55.845500946 17.7450008392 -82.8522033691 
69.0993499756 -26.6976013184 -14.6661500931 
95.1473999023 1.50283336639 94.7761306763 
-22.4230651855 28.7513656616 -101.347671509 
9.82277584076 -41.8156929016 -86.3259811401 
-41.7860641479 35.3829879761 -82.3250961304 
27.9664859772 -22.1917915344 -74.0514678955 
16.1266803741 36.063205719 -67.2091445923 
18.5628604889 -23.0116443634 -21.7114620209 
-6.52252483368 -2.74857521057 -18.1383171082 
-5.68563079834 22.2256469727 -16.1318054199 
28.7561035156 15.7952241898 -3.66494035721 
73.3431625366 51.9496307373 10.0014877319 
85.3534622192 16.2152366638 28.5688209534 
20.0927505493 37.3198013306 27.3162994385 
84.9991912842 47.901260376 28.4406738281 
73.533531189 -58.0333824158 48.0569267273 
90.9766082764 -41.6478843689 48.1965065002 
-67.2001113892 3.04261064529 49.2936553955 
3.48012924194 -31.1347885132 54.4154243469 
92.3666000366 35.2625427246 55.1141929626 
79.3455047607 53.6209716797 60.6378669739 
60.791015625 -53.9868125916 66.9065322876 
97.1913146973 9.31692123413 73.4565124512 
35.350643158 -35.0301322937 79.539932251 
-3.4282002449 26.8113117218 79.5591125488 
99.4415664673 -22.593963623 87.2857971191 
-15.7195472717 -10.1527614594 95.301109314 
19.1604557037 6.31337785721 -104.090713501 
-57.5833854675 31.9309921265 -102.193771362 
-11.3604183197 -18.9545612335 -79.6852874756 
-11.4467067719 19.7913093567 -79.9204101562 
-82.4177780151 32.0183143616 -83.2185745239 
29.2608718872 6.61154079437 -70.4562072754 
24.7048473358 6.13494205475 -44.3092193604 
-6.21062135696 32.2923316956 -44.7960319519 
-1.4468460083 30.1276245117 4.32254362106 
-0.511437535286 5.15922498703 25.3061752319 
-45.7571525574 7.31243610382 42.8908462524 
93.2884368896 -6.4155626297 57.7604560852 
-7.80319452286 -12.8153791428 -38.3245849609 
10.1176576614 -12.879527092 10.37159729 
80.8942337036 -12.7835674286 13.0888996124 
64.210395813 -13.0434341431 98.3446884155 
63.9364089966 13.0898628235 98.0419235229 
-76.568145752 -24.5710201263 -103.806152344 
-76.4710617065 53.1446228027 -91.1614074707 
-67.0227508545 17.6646499634 73.0701751709 
-57.7292480469 9.91094779968 103.975952148 
