ply
format ascii 1.0
element vertex 50
property float x
property float y
property float z
end_header
8.06350040436 -46.3619995117 -91.0615997314 
17.886800766 55.3834991455 -88.1468963623 
30.5683746338 62.3510742188 -52.9866485596 
-17.9709510803 -52.9471969604 -15.5229492188 
-3.28550004959 -1.79534995556 -76.5807952881 
-37.3683624268 35.8180999756 -72.1163864136 
39.6986846924 -29.1433315277 -67.5343170166 
38.5993995667 4.68405008316 -63.6569976807 
-33.3257598877 22.5415878296 -63.226348877 
-25.2225494385 37.4451522827 -58.3534507751 
-33.2488365173 -41.7501983643 -52.4458389282 
-30.373041153 2.77531671524 -54.144241333 
-3.16744995117 -72.3564682007 -47.8054924011 
21.0538654327 -66.3336105347 -49.3260154724 
23.7842197418 -22.1477470398 -47.3390007019 
-33.7212028503 -64.9624786377 -41.715713501 
-42.722026825 -47.7048110962 -41.6922149658 
-40.7556114197 -17.0369434357 -41.5867042542 
20.1585006714 70.9094009399 -43.5666007996 
-34.7692985535 48.2505111694 -35.3814506531 
-31.5202255249 62.8027267456 -34.7138748169 
-31.1183662415 -9.16120052338 -30.687166214 
-31.9020996094 -63.9038009644 -20.9020004272 
14.2864112854 -59.5718650818 -22.6093349457 
3.07593727112 -63.3505210876 -9.36172962189 
-7.9796628952 -17.8776378632 -10.0662117004 
10.2147216797 -14.7846622467 -3.13188147545 
-20.2402133942 -28.6104660034 9.77133750916 
11.8847045898 -22.3439445496 15.9197492599 
-14.822388649 -58.515499115 29.5882568359 
0.540445804596 -47.7558441162 66.7456512451 
1.92301440239 -22.4916095734 67.166305542 
-24.57746315 -41.9082145691 73.6314086914 
-32.2206954956 -19.0946521759 -56.578327179 
22.3699378967 -44.6555023193 -44.7834091187 
21.1057395935 44.9412269592 -43.1659660339 
19.6678218842 -32.1113166809 -30.9096755981 
-40.1504478455 -44.6669769287 -19.4747829437 
6.30845785141 -14.594786644 -19.1255836487 
-6.09953165054 44.5663948059 -19.0790538788 
-22.3931388855 -44.7484588623 19.1995277405 
10.2927951813 -44.9242553711 19.222278595 
-6.48926734924 -14.5905389786 19.2908287048 
-23.5791530609 -31.8617935181 32.0143585205 
-24.742816925 -44.8289070129 44.6312179565 
0.910311460495 -44.8290138245 44.165599823 
-38.5332565308 -40.008605957 -88.019241333 
-16.6252689362 -12.9047775269 -87.6151123047 
-14.8608589172 62.7921791077 -16.0151081085 
-12.6574459076 -38.5247917175 87.6296691895 
