ply
format ascii 1.0
element vertex 50
property float x
property float y
property float z
end_header
87.6149520874 17.1630001068 -26.9715003967 
41.6096534729 14.1596355438 -99.0858306885 
9.84477519989 -14.2218742371 -90.7093963623 
-47.8600654602 -22.4735393524 -86.5606079102 
-44.2114486694 -2.76287484169 -82.4140472412 
-41.5972518921 -6.12982463837 -63.7077980042 
89.5109024048 -12.6423997879 -55.4739990234 
90.0839996338 12.9837999344 -51.400100708 
15.324713707 -34.2288093567 -50.3272094727 
35.425983429 -28.3104839325 -47.2664642334 
67.1262054443 28.7039737701 -49.4021339417 
35.0686073303 -48.0267524719 -41.5766029358 
69.198135376 -43.490562439 -41.6701812744 
41.5467681885 48.7811126709 -42.3470954895 
55.2709197998 -28.7746868134 -27.5878009796 
56.8022003174 24.7911682129 -26.530298233 
63.0647163391 -45.7571525574 -19.3373012543 
-5.99385023117 16.4185752869 -18.7094078064 
-17.285364151 -3.33240962029 -4.31444263458 
45.2869987488 1.31491672993 1.07376670837 
26.1657009125 7.13248300552 1.27543330193 
41.4722976685 -3.66485977173 22.7333240509 
-2.88114762306 -9.11809539795 35.2022819519 
20.0761833191 -3.15810918808 48.450881958 
0.572750031948 4.16269159317 62.1537666321 
28.8225326538 3.15981221199 73.4511795044 
56.4746742249 -25.4894695282 -57.1920776367 
-84.6541824341 -6.45993995667 -46.7055778503 
-44.3763809204 24.6704883575 -44.9463195801 
47.1765518188 25.4584999084 -51.0011520386 
45.1431274414 -5.40791702271 -29.7095985413 
70.704498291 6.48456954956 -28.9620361328 
78.9492874146 42.0063438416 -29.6359195709 
39.3342781067 -56.4195709229 -12.4141044617 
-13.3102502823 -25.979801178 -3.1858997345 
-69.9021072388 -5.3180437088 -8.24625110626 
-13.440112114 27.2181739807 -2.9015250206 
31.5066680908 56.4213066101 -11.3447885513 
6.82268953323 -18.6816082001 19.2510128021 
7.44394302368 19.0945739746 19.0972537994 
45.1121444702 4.16889047623 57.3624992371 
11.6274929047 -2.08663654327 94.0490112305 
40.2271690369 26.0511684418 103.65133667 
63.8459625244 -10.5214233398 -106.390571594 
-38.4847946167 28.0262813568 -105.040557861 
83.3945465088 -33.0541725159 -34.3047561646 
-104.016227722 -6.17061328888 -20.072593689 
75.9662475586 9.93133735657 -104.793502808 
103.695083618 9.50681114197 -75.9768676758 
61.5903739929 4.87298107147 106.12097168 
