ply
format ascii 1.0
element vertex 50
property float x
property float y
property float z
end_header
-22.0888004303 -67.271697998 -48.7028999329 
-26.9001502991 56.1208763123 -49.8830757141 
59.0914421082 36.1712837219 -32.9310417175 
3.89190006256 -51.4702987671 20.3391990662 
-65.685546875 -46.7246017456 21.1777248383 
-63.2915992737 34.7508010864 33.9227981567 
-33.1776504517 -7.23075008392 35.8055000305 
6.92049980164 32.9551010132 36.7861022949 
-49.178150177 27.5088500977 49.0861968994 
-18.3524131775 -16.291475296 -46.1183662415 
-54.4043388367 -3.24287104607 -49.7827758789 
-54.3375816345 22.7194633484 -49.9694900513 
-15.3917837143 -34.4764938354 -35.0635070801 
22.1059703827 -3.8647146225 -37.6758995056 
-63.388217926 34.8713798523 -35.0461387634 
-35.1824264526 -71.2204437256 -28.8917808533 
-64.895866394 3.49476242065 -28.9326248169 
-63.305316925 -60.7043190002 -22.196428299 
4.65886497498 -41.4354858398 -22.3851928711 
28.6832561493 -17.4693889618 -15.9530467987 
67.782913208 16.2543830872 -15.9781360626 
-15.6465368271 54.7839698792 -17.7836341858 
-66.3572540283 -9.35238265991 -10.0008420944 
-54.4398002625 -69.945526123 -2.93838119507 
16.043926239 50.5203819275 -3.3546500206 
41.5465660095 50.0092849731 -2.9545416832 
-41.6317253113 -70.7606430054 3.73706626892 
-22.3060665131 -69.2473907471 3.50115966797 
-67.4708633423 -54.5130653381 2.60060811043 
-62.8362159729 -28.6169071198 3.4133503437 
67.8131713867 22.2703590393 3.02129173279 
-13.4704742432 -18.6414260864 8.64354991913 
9.72225189209 47.415687561 9.29358386993 
-28.7857761383 -67.4393615723 22.7861938477 
-56.6064987183 -56.0113983154 25.2599506378 
9.78492832184 3.41790962219 22.1353168488 
-42.4070930481 65.1027297974 21.0885334015 
-1.4385124445 16.2206306458 28.7361450195 
-48.0825309753 -28.6797580719 36.3503913879 
7.29094982147 -0.28275001049 41.2524986267 
-16.6698741913 -31.1356601715 -19.2700767517 
6.35354185104 49.3833885193 -19.378944397 
-64.6105880737 19.1004428864 -6.72695016861 
-64.8664093018 5.02783632278 7.19899749756 
-5.8492565155 49.9635238647 7.14790201187 
44.8963546753 19.2245121002 23.8972644806 
-30.2372283936 -44.9649162292 30.8750629425 
-38.4490089417 12.7271785736 -49.9656562805 
-38.5428657532 12.5377597809 48.4851608276 
-9.02843570709 12.6069612503 42.3681602478 
