ply
format ascii 1.0
element vertex 50
property float x
property float y
property float z
end_header
-37.6722488403 -24.0701999664 -82.3626556396 
36.7341995239 33.7160339355 19.5493335724 
24.1628990173 46.2000999451 19.4365005493 
-18.2582588196 -37.8781242371 -79.6933059692 
-49.0424690247 2.75828742981 -80.1573944092 
-46.7635917664 22.5912590027 -79.6932525635 
21.8416423798 52.0834236145 -80.184753418 
18.8464508057 -37.946849823 -75.4873962402 
-45.777217865 -9.17256259918 -67.1941375732 
-28.1983165741 46.9405975342 -67.2628173828 
3.83817815781 66.1857147217 -61.2934036255 
-17.7856998444 -37.6550865173 -22.1913661957 
14.6381502151 -38.9128494263 -9.3184671402 
-15.8832435608 53.2407341003 -9.75850009918 
3.4054646492 58.8395309448 -8.84510421753 
-9.51200008392 -40.1594810486 -3.45069169998 
31.9465007782 44.7522010803 2.65829992294 
49.2912139893 3.3718123436 9.506108284 
-47.8223342896 15.3166074753 9.16369342804 
9.2736749649 79.7178955078 7.43483161926 
-25.2803993225 44.5833015442 19.1930007935 
27.3521671295 -26.8557662964 19.4973335266 
-16.2938861847 9.5573091507 22.045665741 
29.0418167114 9.81742763519 21.2774162292 
-35.1255760193 2.83985519409 35.167098999 
-31.0625534058 9.79504394531 54.3541641235 
31.5283355713 9.1767873764 54.476436615 
-36.0425224304 9.36488056183 80.4927215576 
-3.32637381554 9.76819229126 96.7075195313 
33.1848678589 -7.50081920624 -94.1738739014 
6.25897026062 54.5290870667 -94.8479156494 
-48.5552444458 6.41963911057 -57.6387405396 
48.5413551331 6.08560562134 -57.6981964111 
-6.2623462677 -56.1185417175 -43.5983085632 
-46.013874054 -8.16226577759 -44.8514862061 
47.4248161316 19.4322891235 -44.8451194763 
32.1342544556 44.9301300049 -31.9570102692 
6.81228399277 57.7175712585 -33.2668457031 
-6.20421028137 -70.6075744629 -19.032869339 
-48.6155357361 6.44986152649 -6.50218963623 
47.5711517334 19.5797424316 -6.63905143738 
-6.24920940399 -19.2466335297 21.7072582245 
6.42756843567 6.34667539597 22.2830944061 
-6.17840671539 53.7805862427 18.0409126282 
-12.7729349136 12.7965431213 -92.9331283569 
-11.220998764 -86.1895523071 -2.34181904793 
5.72540426254 -78.2629241943 27.5232925415 
12.4990997314 11.7038831711 88.5603103638 
31.0629081726 29.3699207306 -79.745475769 
30.8218746185 -0.399416357279 73.9714355469 
