ply
format ascii 1.0
element vertex 50
property float x
property float y
property float z
end_header
-29.3561000824 -49.7492675781 -43.7885704041 
23.722032547 -43.4852714539 -43.5579338074 
1.61424994469 7.86538314819 -42.9967842102 
5.96185064316 -55.7724151611 -40.2078819275 
-21.1535663605 -36.594367981 -36.704498291 
-22.7204246521 1.60399997234 -36.8915252686 
-20.6880168915 -58.453502655 -33.9438171387 
-1.78549993038 -46.6982154846 -34.4995155334 
27.033498764 4.65158987045 -33.8493728638 
11.1513252258 -54.8592987061 -21.7336997986 
-17.4889335632 -17.7056674957 -20.7410984039 
-14.2084302902 -49.5166816711 -14.6848402023 
17.1120872498 -33.6510467529 -11.1362628937 
4.68208742142 -24.1291122437 -0.454774975777 
3.89310002327 -54.7484016418 2.29295015335 
-20.4947185516 48.6862487793 5.15228319168 
1.72517514229 -9.15399932861 8.09081268311 
-4.157766819 -46.9153327942 11.1246671677 
26.6898498535 8.30760002136 14.4834508896 
7.81177520752 -5.57281255722 23.9853248596 
16.1019458771 9.59296989441 -58.2141647339 
-16.0246734619 -48.116645813 -56.3824996948 
-15.6365251541 7.09156227112 -57.368850708 
3.378718853 -35.3174972534 -37.9798431396 
13.9202880859 -21.7243251801 -34.090549469 
22.7305603027 -47.9062194824 -28.4545726776 
-19.4346008301 14.051199913 -31.3661994934 
21.3145008087 14.9013528824 -29.0206813812 
-21.3027153015 -41.4169235229 -22.8728427887 
-15.5465621948 -3.24954795837 -16.4566936493 
20.0276985168 3.42183017731 -16.2365951538 
-9.91825389862 -15.8930892944 -8.94364070892 
-18.8966007233 13.9244003296 -12.0951499939 
26.6523895264 34.0177993774 -8.40926074982 
18.225151062 0.890845060349 -3.86364984512 
-17.0468215942 42.6447257996 -4.47671461105 
-28.1474018097 10.3688716888 3.38062596321 
25.5228996277 26.1124000549 11.8817996979 
-9.43586826324 52.0518302917 9.70516967773 
-27.7245426178 22.1653347015 27.750082016 
22.0058803558 35.6675949097 28.5556335449 
-16.3342056274 48.0392837524 31.3777580261 
13.5170564651 4.55420303345 34.1151237488 
-16.5857257843 15.7741518021 37.3618927002 
26.8003921509 -54.7302131653 -55.0562591553 
-29.3539505005 -34.6374549866 -54.514591217 
7.11680984497 45.6389427185 -7.36699724197 
-2.63159942627 -56.3810501099 18.9418144226 
-26.4681453705 27.6366138458 -53.6072387695 
10.9467334747 13.3310718536 55.0567131042 
