ply
format ascii 1.0
element vertex 50
property float x
property float y
property float z
end_header
33.423500061 -30.7779998779 -103.096000671 
-42.390499115 32.9668006897 -92.6511993408 
14.8537998199 33.3471984863 -90.8233032227 
-107.618499756 13.7148504257 62.0866012573 
-58.9701538086 2.38104462624 -87.4899291992 
-15.9884595871 -22.8379325867 -80.205291748 
-22.7653388977 20.0185871124 -74.0643768311 
-35.443572998 -18.1856384277 -60.4507369995 
-2.52268743515 3.27748775482 -54.2961616516 
-22.3776245117 -19.0949382782 -48.1788253784 
-5.07722520828 -13.4556503296 -29.4399986267 
1.41975414753 2.81124591827 -16.2500419617 
-13.3435993195 -19.0023498535 -7.85004997253 
-44.0133743286 -11.8157501221 9.48885059357 
-54.3012008667 9.25045871735 17.7296829224 
-41.8134880066 -21.9650173187 29.1991024017 
-41.2524490356 21.1037826538 29.0172328949 
-114.425788879 2.97065424919 48.2770576477 
-98.7373504639 28.2372550964 47.7477645874 
54.4845314026 16.2947425842 54.2565765381 
16.3217964172 -34.4105987549 61.1015396118 
-47.6617355347 -30.3971366882 60.5507278442 
-99.7508010864 -16.603805542 62.7656555176 
-15.8932504654 -31.6681747437 67.4802703857 
15.8327159882 -32.9880828857 79.6650543213 
-9.35733413696 -26.4803180695 85.1364517212 
-17.2716999054 16.6538162231 89.1554641724 
41.9387245178 20.3492507935 92.0425109863 
41.7281455994 -9.79319953918 101.716751099 
-19.1936283112 -6.29314661026 -103.42539978 
-31.925945282 6.29019641876 -103.419021606 
-50.6458740234 11.7122497559 -71.0023040771 
5.23354005814 6.10389566422 -75.0689544678 
-54.1759490967 -6.02126073837 -57.669719696 
-44.8301200867 15.2515535355 -44.739906311 
-51.3911247253 -2.80480003357 -11.1079750061 
13.7862997055 2.97172498703 -0.3492000103 
-95.8605880737 -6.06246137619 15.7027654648 
-108.48890686 6.29727840424 19.4394130707 
-6.20622158051 -21.5025844574 30.968082428 
-6.50082349777 19.6933841705 31.8862457275 
-32.0123214722 -29.4194660187 44.9732780457 
-31.771522522 28.0710220337 44.7078933716 
62.6439743042 -7.37319946289 52.0263977051 
19.164806366 29.5859413147 57.7226715088 
25.8843002319 -4.87960004807 25.1182003021 
-36.4001655579 -10.7659921646 87.4629058838 
12.8804636002 -12.6141328812 97.5664291382 
29.5361652374 20.899477005 -102.625236511 
106.769813538 -10.616736412 81.692565918 
