ply
format ascii 1.0
element vertex 50
property float x
property float y
property float z
end_header
39.5699005127 -8.42730045319 8.31739997864 
19.6121997833 -6.97989988327 38.7344017029 
-31.8518009186 22.3395004272 -40.9066009521 
-20.8967514038 28.2562484741 -40.8658485413 
52.014503479 1.26132500172 -33.8987998962 
-48.4782485962 7.82690048218 -32.2531509399 
48.9678268433 14.7951250076 -32.9432220459 
43.2182998657 -20.6978492737 -30.8558998108 
-44.290725708 18.6707000732 -29.9592990875 
36.8333320618 25.9809341431 -30.5818653107 
23.6032752991 32.84715271 -30.8565483093 
-33.7861328125 24.8945674896 -21.1409664154 
-7.52866697311 -34.1370315552 -17.6601333618 
-51.8601989746 -1.76603329182 -14.6450662613 
-1.02746665478 -17.847366333 -7.93723297119 
21.1236667633 -15.8210992813 -4.55683326721 
32.5430984497 -4.60370016098 -5.37695026398 
-4.43965005875 14.3883495331 -6.26119995117 
26.728099823 -13.2917995453 6.27549982071 
42.1085968018 1.2989000082 8.65934944153 
-8.14210033417 15.2704744339 10.932674408 
4.93305015564 23.2850513458 11.1002750397 
5.24572467804 -23.8870506287 17.7336997986 
41.0390472412 -3.85879993439 22.5925502777 
4.57516670227 19.9648666382 24.1342010498 
-4.72643327713 -17.4487667084 27.166967392 
-15.7574014664 -1.81445002556 28.0382995605 
-10.6688337326 11.3757333755 30.0417327881 
18.0975170135 11.2956171036 36.9545478821 
-44.8941001892 -0.544200003147 -39.0703010559 
16.9093666077 -29.6777000427 -20.8624629974 
42.4762496948 -16.7706451416 -21.6195163727 
16.9489898682 29.9937839508 -21.0485649109 
40.7575073242 14.7567529678 -17.9087905884 
-8.5140838623 33.950088501 -17.4300918579 
21.3190498352 20.0030250549 -12.0898752213 
9.64671897888 -16.8451938629 -3.04694151878 
-15.6557693481 -3.25890994072 -3.73194646835 
-16.0861225128 9.49764537811 -5.4352107048 
26.5555496216 13.0826501846 -4.64124965668 
-45.1725997925 -0.402999997139 0.310499995947 
30.756029129 2.93532085419 1.81424152851 
-11.4843940735 -10.2868061066 8.94850063324 
15.1988391876 21.2482624054 10.0265188217 
6.33351039886 -6.42725467682 -41.9340515137 
-6.46727705002 6.56619882584 -41.8501739502 
6.62600660324 -20.171705246 5.75214958191 
-8.98438167572 7.29257202148 5.11238574982 
12.8302049637 12.770075798 -42.065662384 
-9.53399944305 -7.23334789276 35.2207450867 
